-0.0487436 -0.5 -0.0426548 0 -1 0
0.0629039 0.5 0.078208 0 1 0
0.5 0.0614574 -0.420474 1 0 0
-0.5 0.0941609 -0.441823 -1 0 0
0.280452 -0.0121088 0.5 0 0 1
-0.5 0.135474 0.407437 -1 0 0
0.5 -0.362173 0.100106 1 0 0
-0.434966 -0.456469 0.5 0 0 1
0.5 0.345471 0.138362 1 0 0
0.181301 -0.442656 -0.5 0 0 -1
-0.5 -0.454259 -0.498714 -1 0 0
-0.151735 0.490194 -0.5 0 0 -1
-0.5 0.417927 0.0400035 -1 0 0
0.198676 0.49093 0.5 0 0 1
0.101474 -0.5 0.47578 0 -1 0
-0.5 -0.241173 -0.0043752 -1 0 0
0.38836 0.5 -0.370237 0 1 0
-0.121039 -0.0524351 0.5 0 0 1
0.0626723 0.0488536 -0.5 0 0 -1
-0.292478 0.5 0.409147 0 1 0
0.5 -0.42308 0.498569 1 0 0
-0.5 0.137293 -0.0964328 -1 0 0
0.5 -0.418846 -0.299906 1 0 0
0.5 -0.0454668 0.324583 1 0 0
0.406896 0.5 -0.000615332 0 1 0
0.267329 0.414408 -0.5 0 0 -1
-0.291964 0.11444 -0.5 0 0 -1
-0.5 -0.0766746 -0.495102 -1 0 0
-0.5 0.442519 -0.430664 -1 0 0
0.5 0.0282132 -0.052856 1 0 0
-0.117405 0.5 -0.128875 0 1 0
-0.150703 -0.275392 -0.5 0 0 -1
-0.0712101 0.223708 0.5 0 0 1
-0.5 -0.379324 0.278544 -1 0 0
0.5 0.412354 0.348941 1 0 0
-0.37804 -0.5 -0.140301 0 -1 0
0.297645 -0.5 -0.204432 0 -1 0
-0.172463 -0.5 0.309733 0 -1 0
0.19829 -0.5 0.152793 0 -1 0
0.5 -0.252666 -0.49221 1 0 0
-0.106649 -0.5 -0.364664 0 -1 0
0.101169 0.5 0.226682 0 1 0
-0.5 0.417513 0.251917 -1 0 0
0.5 -0.202916 -0.247091 1 0 0
0.260361 0.189486 0.5 0 0 1
-0.446035 -0.175546 0.5 0 0 1
0.5 0.308412 -0.178643 1 0 0
0.5 0.187405 0.38118 1 0 0
-0.370654 0.5 -0.188931 0 1 0
-0.185554 -0.383263 0.5 0 0 1
-0.240184 0.5 0.104439 0 1 0
-0.324797 0.320614 0.5 0 0 1
-0.5 -0.156722 -0.240088 -1 0 0
-0.5 -0.0921704 0.279005 -1 0 0
-0.340042 -0.141113 0.5 0 0 1
0.204044 -0.152018 -0.5 0 0 -1
0.5 0.342465 -0.458604 1 0 0
0.316349 0.16823 -0.5 0 0 -1
0.173922 0.5 -0.183475 0 1 0
0.5 -0.33555 0.36643 1 0 0
-0.5 -0.0466162 0.110759 -1 0 0
0.0562225 -0.235541 0.5 0 0 1
-0.5 0.250812 -0.353939 -1 0 0
-0.5 -0.380379 -0.283171 -1 0 0
-0.355207 -0.5 0.102479 0 -1 0
-0.5 0.46535 0.499735 -1 0 0
0.495401 0.5 0.030282 0 1 0
-0.0741649 0.495279 0.5 0 0 1
0.349915 -0.5 0.351949 0 -1 0
-0.134694 0.5 -0.231364 0 1 0
0.356056 0.5 0.349741 0 1 0
-0.5 0.163238 0.155857 -1 0 0
0.452806 0.5 -0.165591 0 1 0
0.5 -0.0977674 0.103546 1 0 0
-0.067919 0.269429 -0.5 0 0 -1
-0.386286 -0.5 0.488872 0 -1 0
0.36687 -0.224938 0.5 0 0 1
-0.294579 0.0834566 0.5 0 0 1
-0.331306 0.5 0.320196 0 1 0
0.471332 -0.477102 -0.5 0 0 -1
-0.328172 0.340048 -0.5 0 0 -1
0.0130951 -0.304365 -0.5 0 0 -1
0.5 -0.425126 -0.0794766 1 0 0
0.5 0.302994 -0.380213 1 0 0
0.5 -0.17246 0.00232434 1 0 0
-0.264173 -0.442787 -0.5 0 0 -1
-0.5 0.363564 -0.158608 -1 0 0
0.5 0.128155 0.207313 1 0 0
0.0512264 0.5 -0.393226 0 1 0
-0.5 -0.169704 0.298447 -1 0 0
0.235712 -0.424027 0.5 0 0 1
0.5 -0.0778406 0.475639 1 0 0
0.384382 -0.0400079 -0.5 0 0 -1
-0.179203 -0.0678728 -0.5 0 0 -1
0.0743241 -0.13718 0.5 0 0 1
0.170927 -0.0743469 -0.5 0 0 -1
0.395445 0.349756 0.5 0 0 1
0.399604 0.440588 0.5 0 0 1
-0.350339 -0.5 -0.339821 0 -1 0
0.39712 -0.5 0.00697658 0 -1 0
0.0530568 0.5 0.351668 0 1 0
-0.355591 -0.250431 -0.5 0 0 -1
-0.327019 0.5 -0.391644 0 1 0
-0.375374 -0.275584 0.5 0 0 1
0.5 0.0832418 -0.221723 1 0 0
0.0832013 -0.5 -0.381914 0 -1 0
0.236628 0.5 -0.385277 0 1 0
0.281504 0.5 0.099134 0 1 0
0.314326 -0.5 -0.386281 0 -1 0
-0.5 0.239174 0.356173 -1 0 0
0.0835264 -0.5 -0.182159 0 -1 0
0.0917434 0.383131 -0.5 0 0 -1
-0.225204 -0.5 0.133659 0 -1 0
-0.127119 0.5 0.278071 0 1 0
-0.5 -0.265087 -0.416918 -1 0 0
-0.0699968 -0.107462 -0.5 0 0 -1
0.439226 0.125497 0.5 0 0 1
0.5 -0.212454 0.240269 1 0 0
0.0676716 0.332755 0.5 0 0 1
0.5 0.133775 0.0339894 1 0 0
-0.5 -0.433057 -0.0603925 -1 0 0
0.0470748 -0.5 0.229433 0 -1 0
0.182479 -0.5 -0.0341142 0 -1 0
0.46263 -0.5 0.240374 0 -1 0
-0.332182 0.0365071 -0.5 0 0 -1
0.0626454 0.0323143 0.5 0 0 1
0.5 0.327353 -0.303397 1 0 0
-0.0310799 -0.428592 -0.5 0 0 -1
0.5 -0.447963 0.406476 1 0 0
-0.5 -0.321864 0.415991 -1 0 0
-0.363817 -0.00931711 0.5 0 0 1
-0.220992 -0.5 -0.0718545 0 -1 0
-0.116469 0.5 -0.0254091 0 1 0
0.5 -0.0280711 -0.272097 1 0 0
-0.237484 -0.5 0.407727 0 -1 0
0.10097 -0.5 0.0416202 0 -1 0
-0.140148 0.0942687 0.5 0 0 1
-0.444309 0.33481 0.5 0 0 1
-0.5 0.234726 0.0172456 -1 0 0
-0.5 -0.406399 0.0676428 -1 0 0
-0.5 -0.228369 0.147843 -1 0 0
-0.5 0.0986827 -0.278025 -1 0 0
0.078072 0.5 -0.0983117 0 1 0
0.286772 0.5 -0.226826 0 1 0
0.312614 -0.314681 -0.5 0 0 -1
0.5 0.48386 0.211721 1 0 0
-0.438454 -0.5 0.322003 0 -1 0
-0.5 0.0102264 0.450268 -1 0 0
-0.489461 0.5 -0.124934 0 1 0
-0.0910151 -0.5 0.462924 0 -1 0
0.195783 0.164785 -0.5 0 0 -1
-0.494371 0.262848 -0.5 0 0 -1
0.475411 -0.5 0.138832 0 -1 0
0.317772 -0.449117 0.5 0 0 1
0.415742 0.0885059 -0.5 0 0 -1
0.459894 0.499779 -0.5 0 0 -1
-0.5 -0.138639 -0.01826 -1 0 0
-0.183554 0.343659 0.5 0 0 1
0.496275 -0.309987 0.5 0 0 1
-0.135373 -0.2258 0.5 0 0 1
0.5 0.0928696 0.414603 1 0 0
0.185068 -0.5 0.331592 0 -1 0
-0.414434 0.5 0.183863 0 1 0
0.0256336 -0.5 0.313567 0 -1 0
-0.5 -0.0420252 -0.131925 -1 0 0
0.5 -0.112805 -0.447843 1 0 0
-0.120013 0.128786 -0.5 0 0 -1
-0.5 -0.272563 -0.141842 -1 0 0
0.392395 0.254972 -0.5 0 0 -1
0.3138 0.5 -0.139872 0 1 0
-0.5 -0.0367782 -0.309481 -1 0 0
0.344432 0.5 0.222136 0 1 0
-0.107357 0.434195 -0.5 0 0 -1
0.245981 -0.173455 0.5 0 0 1
-0.416109 0.481428 -0.5 0 0 -1
-0.5 -0.471665 -0.221623 -1 0 0
0.5 -0.313682 -0.0335919 1 0 0
-0.5 0.4402 -0.275744 -1 0 0
0.10537 0.179142 0.5 0 0 1
0.5 0.305294 0.278891 1 0 0
0.5 0.306303 -0.0210721 1 0 0
-0.327688 -0.5 0.258556 0 -1 0
-0.455119 -0.5 0.173283 0 -1 0
0.245181 -0.279989 -0.5 0 0 -1
0.5 -0.37211 -0.416129 1 0 0
-0.5 0.0679845 0.272037 -1 0 0
-0.145595 -0.5 -0.183828 0 -1 0
0.473848 0.5 0.449823 0 1 0
-0.340736 -0.116306 -0.5 0 0 -1
-0.183049 0.449285 0.5 0 0 1
0.0532828 -0.131246 -0.5 0 0 -1
-0.268858 0.5 -0.0732747 0 1 0
0.207717 0.5 0.287981 0 1 0
-0.163827 0.300081 -0.5 0 0 -1
0.321413 -0.5 0.211672 0 -1 0
0.152823 -0.5 -0.423327 0 -1 0
0.00687396 -0.380066 0.5 0 0 1
-0.422671 0.205332 0.5 0 0 1
0.430398 -0.5 -0.15389 0 -1 0
0.486879 0.192034 -0.5 0 0 -1
0.5 0.300431 0.463537 1 0 0
-0.5 0.448758 0.132064 -1 0 0
0.5 -0.0338617 0.0357147 1 0 0
0.138667 0.0162113 0.5 0 0 1
0.5 0.00879218 0.195067 1 0 0
0.5 -0.198347 0.37703 1 0 0
0.0787189 0.224074 -0.5 0 0 -1
-0.5 0.0780512 0.0375551 -1 0 0
0.207168 0.345495 0.5 0 0 1
0.237535 0.5 -0.0540532 0 1 0
-0.360654 0.5 0.0340321 0 1 0
0.0534583 -0.5 -0.0765527 0 -1 0
-0.152676 -0.443024 -0.5 0 0 -1
0.5 -0.335824 0.221397 1 0 0
0.334473 -0.14009 -0.5 0 0 -1
0.00662864 0.5 -0.221556 0 1 0
0.5 -0.0914767 -0.141779 1 0 0
-0.230976 -0.5 -0.341246 0 -1 0
0.30501 -0.439944 -0.5 0 0 -1
0.183222 -0.260125 0.5 0 0 1
-0.137964 -0.5 0.0445745 0 -1 0
0.5 0.182778 -0.12648 1 0 0
-0.13776 0.5 0.0650335 0 1 0
0.323276 0.5 0.423953 0 1 0
0.318517 0.494999 -0.5 0 0 -1
0.5 0.393509 -0.0865442 1 0 0
-0.471738 -0.5 -0.392479 0 -1 0
0.494206 0.5 -0.2508 0 1 0
-0.5 -0.12606 0.443942 -1 0 0
-0.496099 -0.5 0.0321646 0 -1 0
0.169445 0.5 -0.464497 0 1 0
-0.00377051 -0.5 -0.290758 0 -1 0
0.427891 -0.5 -0.317208 0 -1 0
-0.335799 0.25004 -0.5 0 0 -1
0.281567 -0.5 -0.007163 0 -1 0
-0.0512025 0.5 0.148328 0 1 0
-0.5 -0.158047 -0.0919548 -1 0 0
-0.249748 0.40482 -0.5 0 0 -1
-0.5 0.481605 0.368203 -1 0 0
0.240609 -0.5 0.430756 0 -1 0
-0.409586 -0.353483 -0.5 0 0 -1
-0.169374 0.5 0.36554 0 1 0
-0.5 0.288596 -0.257695 -1 0 0
0.291915 0.338796 0.5 0 0 1
-0.194958 0.23462 0.5 0 0 1
-0.236587 -0.0790874 0.5 0 0 1
-0.5 0.396742 0.403978 -1 0 0
0.5 0.250771 0.0901751 1 0 0
0.423642 0.00760803 0.5 0 0 1
0.5 -0.338641 -0.160133 1 0 0
0.34892 -0.103849 0.5 0 0 1
0.5 0.412609 0.240792 1 0 0
-0.449198 0.110303 0.5 0 0 1
0.276693 0.0307704 -0.5 0 0 -1
0.0979655 -0.362996 -0.5 0 0 -1
-0.5 0.0117711 -0.233572 -1 0 0
-0.5 0.323369 0.107471 -1 0 0
0.0515993 0.48937 0.5 0 0 1
0.5 0.442854 -0.335603 1 0 0
-0.5 -0.371812 0.142157 -1 0 0
-0.5 -0.24222 -0.27374 -1 0 0
0.148797 0.5 -0.292696 0 1 0
0.416445 -0.5 0.49847 0 -1 0
-0.130379 -0.5 -0.445958 0 -1 0
0.425137 0.5 0.132532 0 1 0
-0.0735425 0.5 -0.408765 0 1 0
0.215151 0.5 0.150783 0 1 0
-0.265242 -0.362296 -0.5 0 0 -1
-0.5 -0.128089 0.105263 -1 0 0
-0.396736 -0.5 -0.497341 0 -1 0
-0.440398 -0.190626 -0.5 0 0 -1
0.119183 -0.246463 -0.5 0 0 -1
0.0480688 -0.5 -0.494884 0 -1 0
0.5 -0.225156 0.120518 1 0 0
-0.334549 -0.5 -0.0118046 0 -1 0
-0.0679633 0.370837 0.5 0 0 1
-0.443289 0.5 -0.352241 0 1 0
-0.0424244 -0.174063 0.5 0 0 1
-0.245495 -0.224475 -0.5 0 0 -1
0.5 -0.407148 0.281522 1 0 0
-0.254886 0.5 -0.214452 0 1 0
0.5 -0.125806 0.171963 1 0 0
0.5 -0.492534 -0.00284794 1 0 0
0.0114052 0.433389 -0.5 0 0 -1
-0.5 -0.367901 -0.397511 -1 0 0
-0.5 0.403913 -0.0541701 -1 0 0
0.335444 0.240227 0.5 0 0 1
0.5 0.168872 -0.30168 1 0 0
-0.0231422 -0.5 0.139656 0 -1 0
0.352228 -0.5 0.117103 0 -1 0
-0.104101 0.5 -0.342315 0 1 0
-0.280919 -0.459804 0.5 0 0 1
-0.295968 0.459767 0.5 0 0 1
0.5 -0.191493 -0.137936 1 0 0
-0.5 -0.484342 0.429853 -1 0 0
0.370939 -0.33605 0.5 0 0 1
-0.328996 -0.5 0.385392 0 -1 0
0.456897 -0.361762 -0.5 0 0 -1
0.5 0.414859 -0.197614 1 0 0
-0.5 -0.165749 -0.365677 -1 0 0
0.5 0.0583426 0.308233 1 0 0
0.430505 0.385758 -0.5 0 0 -1
-0.246331 0.0269398 -0.5 0 0 -1
-0.336352 -0.399201 0.5 0 0 1
-0.5 -0.0258908 -0.00179761 -1 0 0
-0.5 0.0601634 -0.343282 -1 0 0
-0.421652 0.173281 -0.5 0 0 -1
0.115408 -0.393406 0.5 0 0 1
0.213666 -0.5 -0.143444 0 -1 0
-0.0377378 0.032143 0.5 0 0 1
-0.0666283 -0.5 0.348278 0 -1 0
0.328792 0.349145 -0.5 0 0 -1
-0.5 -0.409275 0.40392 -1 0 0
0.5 -0.144787 -0.340989 1 0 0
0.11831 0.5 -0.00437361 0 1 0
-0.396609 0.5 0.415921 0 1 0
-0.472763 0.5 -0.246193 0 1 0
-0.176693 -0.165027 -0.5 0 0 -1
-0.5 0.275371 0.256495 -1 0 0
0.0109241 0.118623 0.5 0 0 1
0.185501 0.0371242 -0.5 0 0 -1
0.5 -0.304185 -0.330134 1 0 0
-0.28569 -0.5 -0.420345 0 -1 0
0.5 0.17258 -0.397037 1 0 0
-0.5 -0.298092 -0.497833 -1 0 0
-0.255227 -0.5 -0.202025 0 -1 0
-0.299571 0.5 0.247351 0 1 0
-0.116323 -0.5 0.153136 0 -1 0
0.233296 0.5 0.381284 0 1 0
-0.226384 0.5 -0.413708 0 1 0
0.163921 0.300689 -0.5 0 0 -1
-0.5 -0.25082 0.477088 -1 0 0
0.489949 -0.020368 -0.5 0 0 -1
-0.309924 -0.5 -0.261075 0 -1 0
-0.5 0.0140469 0.380502 -1 0 0
-0.5 0.337864 -0.414626 -1 0 0
0.207739 -0.0735175 0.5 0 0 1
-0.0628223 0.5 0.39617 0 1 0
0.5 -0.0418737 -0.376496 1 0 0
-0.5 0.175922 0.281365 -1 0 0
-0.5 -0.283326 0.262946 -1 0 0
-0.0148678 -0.210581 -0.5 0 0 -1
-0.0399171 -0.5 -0.194219 0 -1 0
-0.245966 -0.5 0.0407267 0 -1 0
-0.0187897 0.5 0.0225805 0 1 0
-0.409726 0.409751 -0.5 0 0 -1
0.00184611 0.152502 -0.5 0 0 -1
0.5 0.0894535 0.114187 1 0 0
-0.334589 0.5 0.13987 0 1 0
0.250707 -0.5 -0.288291 0 -1 0
-0.278417 -0.226899 0.5 0 0 1
-0.5 0.260941 0.455756 -1 0 0
-0.114971 -0.00151967 -0.5 0 0 -1
-0.5 0.190971 -0.228076 -1 0 0
0.26747 -0.334165 0.5 0 0 1
-0.0360787 -0.284422 0.5 0 0 1
0.448954 -0.5 -0.403785 0 -1 0
-0.275527 -0.330062 0.5 0 0 1
-0.445286 0.5 0.0316319 0 1 0
-0.5 -0.331107 -0.0585359 -1 0 0
-0.33701 0.5 -0.307459 0 1 0
-0.0270474 -0.5 -0.451824 0 -1 0
-0.425767 -0.5 0.426951 0 -1 0
0.217362 0.063311 0.5 0 0 1
-0.276956 0.490946 -0.5 0 0 -1
0.5 0.431801 -0.448021 1 0 0
-0.32599 0.226977 0.5 0 0 1
-0.0786832 -0.385515 0.5 0 0 1
0.386593 -0.223853 -0.5 0 0 -1
-0.5 0.362216 -0.321037 -1 0 0
-0.443891 -0.0677404 0.5 0 0 1
-0.5 0.266835 -0.193148 -1 0 0
-0.428864 -0.5 -0.0489512 0 -1 0
0.5 -0.393523 -0.203881 1 0 0
-0.5 0.332982 0.188055 -1 0 0
0.5 0.20145 0.481228 1 0 0
-0.5 -0.186767 0.396317 -1 0 0
0.428711 0.5 0.271706 0 1 0
-0.220129 -0.178153 0.5 0 0 1
0.169324 -0.479918 0.5 0 0 1
0.00453219 -0.5 0.412392 0 -1 0
0.492699 -0.5 -0.240833 0 -1 0
0.14435 0.5 0.435167 0 1 0
-0.445162 0.0408712 0.5 0 0 1
0.488572 0.424704 0.5 0 0 1
0.5 -0.00472591 0.429514 1 0 0
-0.426927 -0.5 -0.277111 0 -1 0
-0.5 -0.304061 0.0725052 -1 0 0
-0.241421 0.261308 -0.5 0 0 -1
-0.5 0.30218 -0.0551434 -1 0 0
-0.150213 0.5 0.183301 0 1 0
0.214553 -0.5 0.0685246 0 -1 0
0.0140664 -0.5 0.0333303 0 -1 0
0.437374 -0.12263 -0.5 0 0 -1
-0.460727 0.5 0.267361 0 1 0
-0.0503764 -0.5 0.234671 0 -1 0
0.192379 0.5 0.0554191 0 1 0
-0.22106 0.5 -0.305422 0 1 0
-0.0267681 -0.076188 0.5 0 0 1
0.0133597 -0.0656357 -0.5 0 0 -1
-0.210627 0.034994 0.5 0 0 1
-0.5 0.213069 -0.417417 -1 0 0
0.00153454 0.5 -0.0543582 0 1 0
-0.361437 0.5 -0.101481 0 1 0
0.352259 0.0510358 0.5 0 0 1
0.405223 0.18021 -0.5 0 0 -1
0.5 -0.0217749 0.129581 1 0 0
-0.5 -0.0282625 -0.412036 -1 0 0
-0.482367 -0.34435 0.5 0 0 1
0.3817 -0.497241 -0.5 0 0 -1
0.5 0.124107 -0.0579886 1 0 0
-0.5 -0.086101 0.0453488 -1 0 0
0.349944 -0.5 -0.107307 0 -1 0
0.464165 0.5 -0.0702516 0 1 0
0.0835141 -0.5 0.132951 0 -1 0
0.235938 -0.5 0.248552 0 -1 0
-0.0138085 0.5 -0.325558 0 1 0
0.00434139 0.5 0.269956 0 1 0
-0.114654 -0.5 -0.0878468 0 -1 0
0.0421626 0.5 0.161126 0 1 0
0.308919 -0.0575271 -0.5 0 0 -1
-0.5 -0.47455 -0.293654 -1 0 0
-0.5 -0.464899 0.236162 -1 0 0
-0.5 -0.0448591 0.200218 -1 0 0
-0.421785 0.28945 -0.5 0 0 -1
0.385202 -0.5 0.287805 0 -1 0
-0.5 0.226656 0.111272 -1 0 0
-0.5 -0.181135 -0.471972 -1 0 0
0.0263545 0.27452 0.5 0 0 1
0.117511 0.5 -0.360847 0 1 0
-0.214976 0.143733 0.5 0 0 1
0.5 -0.283637 0.0563141 1 0 0
-0.188867 0.5 -0.105948 0 1 0
-0.238171 0.5 0.193324 0 1 0
0.434154 -0.178744 0.5 0 0 1
0.217206 0.5 -0.268396 0 1 0
-0.0749859 -0.322256 -0.5 0 0 -1
0.284205 0.5 0.293315 0 1 0
0.5 -0.419013 0.177899 1 0 0
0.5 -0.206878 -0.406819 1 0 0
0.5 0.234332 -0.231356 1 0 0
-0.0433336 0.344003 -0.5 0 0 -1
0.47967 -0.5 0.332815 0 -1 0
-0.497911 0.402627 0.5 0 0 1
0.5 0.211981 0.233921 1 0 0
-0.237236 -0.5 0.242295 0 -1 0
0.5 -0.296119 0.42261 1 0 0
-0.423051 -0.0273893 -0.5 0 0 -1
-0.00913536 -0.45847 0.5 0 0 1
-0.170799 -0.5 0.469749 0 -1 0
0.5 -0.466827 -0.154949 1 0 0
0.5 0.36826 0.0452296 1 0 0
0.015071 0.283086 -0.5 0 0 -1
0.373562 0.5 -0.449887 0 1 0
-0.127336 -0.5 -0.272701 0 -1 0
-0.134878 -0.309991 0.5 0 0 1
0.223829 0.424137 0.5 0 0 1
-0.44274 0.5 0.334143 0 1 0
-0.295418 -0.041299 -0.5 0 0 -1
0.300045 -0.5 -0.461157 0 -1 0
-0.382198 0.109928 -0.5 0 0 -1
0.11599 0.255275 0.5 0 0 1
0.180061 -0.17236 0.5 0 0 1
-0.145689 0.214178 -0.5 0 0 -1
0.227417 -0.5 -0.380237 0 -1 0
0.309454 0.5 -0.312342 0 1 0
0.5 -0.113741 -0.244007 1 0 0
0.337025 0.5 -0.0558862 0 1 0
-0.36742 -0.5 0.186318 0 -1 0
0.5 -0.0109447 -0.145011 1 0 0
-0.243874 0.5 0.321459 0 1 0
-0.270184 0.388389 0.5 0 0 1
-0.5 -0.351966 -0.176723 -1 0 0
0.187981 -0.5 -0.227527 0 -1 0
0.5 -0.083432 0.390443 1 0 0
0.478232 0.5 0.362361 0 1 0
0.120664 -0.5 0.288201 0 -1 0
-0.17362 -0.35924 -0.5 0 0 -1
0.5 0.213035 -0.00330618 1 0 0
-0.5 -0.076609 0.365135 -1 0 0
-0.216576 0.5 0.442134 0 1 0
0.134128 0.102783 -0.5 0 0 -1
-0.488625 -0.5 -0.114443 0 -1 0
-0.131478 -0.138979 0.5 0 0 1
-0.207685 0.131396 -0.5 0 0 -1
0.316166 0.424986 0.5 0 0 1
0.5 0.273843 0.359382 1 0 0
-0.33532 0.448372 -0.5 0 0 -1
0.283405 0.5 0.49129 0 1 0
0.5 0.243308 -0.321665 1 0 0
-0.5 0.463271 -0.499559 -1 0 0
0.31139 0.253915 -0.5 0 0 -1
-0.436828 -0.5 -0.194009 0 -1 0
-0.5 -0.456887 0.341468 -1 0 0
-0.145989 -0.5 0.379164 0 -1 0
0.123308 0.451668 0.5 0 0 1
-0.5 0.4839 -0.0249891 -1 0 0
-0.5 -0.40395 0.49744 -1 0 0
-0.41391 -0.5 -0.392891 0 -1 0
-0.035174 0.5 -0.147445 0 1 0
0.5 -0.455401 -0.429781 1 0 0
0.396027 -0.422435 0.5 0 0 1
0.00169295 0.5 -0.446197 0 1 0
-0.11475 0.164498 0.5 0 0 1
-0.5 -0.014153 0.289159 -1 0 0
0.242333 -0.384176 -0.5 0 0 -1
0.422294 -0.5 0.415204 0 -1 0
0.157066 0.5 -0.0712984 0 1 0
0.5 0.168804 -0.203895 1 0 0
-0.372177 -0.419529 -0.5 0 0 -1
-0.5 0.0574822 -0.0719163 -1 0 0
0.466002 0.5 -0.393284 0 1 0
0.165814 0.444982 -0.5 0 0 -1
0.423182 0.5 -0.293403 0 1 0
-0.0187272 0.0760057 -0.5 0 0 -1
-0.363193 0.419459 0.5 0 0 1
0.5 -0.144876 0.314663 1 0 0
0.234909 0.0928569 -0.5 0 0 -1
-0.5 -0.255452 0.338106 -1 0 0
-0.233126 -0.5 -0.479044 0 -1 0
0.5 0.0379412 0.498967 1 0 0
0.145006 -0.5 -0.112048 0 -1 0
-0.303895 -0.184967 -0.5 0 0 -1
0.463179 0.0206167 -0.5 0 0 -1
-0.41534 -0.5 0.0381889 0 -1 0
-0.397364 0.5 -0.431547 0 1 0
-0.495953 0.174876 0.5 0 0 1
0.279886 0.5 0.194254 0 1 0
0.5 0.378474 0.437641 1 0 0
0.5 -0.276053 -0.201883 1 0 0
-0.107147 -0.196613 -0.5 0 0 -1
0.5 -0.231968 -0.321941 1 0 0
0.5 0.277203 -0.0926889 1 0 0
0.00824239 0.425519 0.5 0 0 1
0.411174 -0.29428 -0.5 0 0 -1
-0.5 0.095604 0.353219 -1 0 0
-0.5 0.397652 0.329148 -1 0 0
0.0805948 0.5 -0.19435 0 1 0
0.201866 0.369472 -0.5 0 0 -1
0.360259 0.5 0.0894554 0 1 0
-0.5 -0.17044 0.219541 -1 0 0
0.449236 -0.5 -0.0626608 0 -1 0
-0.5 -0.450886 0.116027 -1 0 0
-0.5 0.0317325 -0.152772 -1 0 0
0.5 0.485858 0.291788 1 0 0
-0.198864 0.5 -0.0283787 0 1 0
0.182584 0.216411 0.5 0 0 1
0.408487 0.216177 0.5 0 0 1
-0.5 0.435576 -0.183297 -1 0 0
0.5 0.042827 0.0427072 1 0 0
0.320311 -0.175244 0.5 0 0 1
-0.267771 0.187699 -0.5 0 0 -1
0.5 0.296548 0.202286 1 0 0
-0.5 -0.43723 -0.429279 -1 0 0
0.0360732 0.203295 0.5 0 0 1
-0.494749 0.143445 -0.5 0 0 -1
-0.247061 -0.5 0.32065 0 -1 0
-0.303181 0.5 -0.151087 0 1 0
-0.290906 -0.5 0.186927 0 -1 0
0.0338819 -0.314856 0.5 0 0 1
-0.0544476 -0.5 0.0747037 0 -1 0
0.5 -0.142994 0.438084 1 0 0
-0.5 0.450873 -0.350654 -1 0 0
-0.116572 0.308218 0.5 0 0 1
0.130264 -0.5 -0.495539 0 -1 0
-0.42975 -0.104472 -0.5 0 0 -1
0.391657 0.5 -0.120993 0 1 0
0.5 -0.092509 0.239815 1 0 0
0.104068 -0.29402 0.5 0 0 1
-0.5 -0.31931 -0.327658 -1 0 0
0.136422 0.36925 0.5 0 0 1
0.5 -0.266495 0.192301 1 0 0
-0.399788 -0.5 0.253995 0 -1 0
-0.5 0.379693 -0.238996 -1 0 0
0.5 -0.0462258 -0.0444945 1 0 0
-0.5 0.476598 0.201437 -1 0 0
0.5 -0.268992 0.287991 1 0 0
0.0688233 -0.5 -0.306813 0 -1 0
0.271893 0.5 0.0120068 0 1 0
0.0764706 0.5 -0.275171 0 1 0
0.265759 -0.499024 0.5 0 0 1
-0.416251 0.0445923 -0.5 0 0 -1
0.5 -0.229292 -0.074409 1 0 0
-0.287247 0.5 0.0294273 0 1 0
-0.140509 -0.5 0.24315 0 -1 0
-0.5 -0.0597207 0.43596 -1 0 0
-0.0430761 0.5 0.328569 0 1 0
0.5 -0.434301 0.0930969 1 0 0
0.238692 -0.481161 -0.5 0 0 -1
-0.5 0.18981 -0.300425 -1 0 0
0.12754 -0.0165233 -0.5 0 0 -1
-0.5 -0.168516 -0.168893 -1 0 0
0.5 0.0519678 -0.349197 1 0 0
0.466717 -0.5 0.06769 0 -1 0
-0.337467 0.171389 -0.5 0 0 -1
-0.5 0.110763 0.21471 -1 0 0
-0.284988 0.157663 0.5 0 0 1
0.188043 -0.322734 -0.5 0 0 -1
0.5 0.391718 -0.385278 1 0 0
0.127232 0.5 0.107342 0 1 0
-0.477981 0.390812 -0.5 0 0 -1
-0.5 -0.182599 0.0601145 -1 0 0
0.5 0.155761 0.138929 1 0 0
-0.308071 -0.5 -0.130295 0 -1 0
0.279789 -0.232399 0.5 0 0 1
0.367846 -0.5 -0.211246 0 -1 0
-0.5 -0.443473 -0.356968 -1 0 0
0.490361 0.5 0.105695 0 1 0
0.5 -0.489969 0.476327 1 0 0
0.356048 0.5 -0.237166 0 1 0
0.048838 -0.242837 -0.5 0 0 -1
0.0935879 0.30208 -0.5 0 0 -1
0.110626 -0.5 -0.247054 0 -1 0
0.346344 -0.38567 -0.5 0 0 -1
0.0219411 -0.5 -0.139267 0 -1 0
-0.498409 -0.484119 0.5 0 0 1
0.401886 0.460411 -0.5 0 0 -1
-0.5 0.308937 0.3624 -1 0 0
0.129468 -0.5 0.185315 0 -1 0
-0.5 0.319621 0.0400975 -1 0 0
0.357102 -0.5 0.461743 0 -1 0
0.139787 -0.179866 -0.5 0 0 -1
-0.165982 0.0459513 -0.5 0 0 -1
-0.0724745 0.5 -0.280271 0 1 0
-0.0372728 -0.0179002 -0.5 0 0 -1
0.0374668 -0.396123 -0.5 0 0 -1
-0.5 0.139029 0.0694341 -1 0 0
0.268655 -0.113243 -0.5 0 0 -1
-0.0447457 0.5 0.21672 0 1 0
-0.211497 -0.291623 -0.5 0 0 -1
-0.208722 -0.4519 0.5 0 0 1
-0.173669 -0.5 -0.0134708 0 -1 0
-0.5 -0.131777 -0.424752 -1 0 0
0.072262 0.5 0.435963 0 1 0
-0.339757 0.5 0.453357 0 1 0
0.0773553 0.449791 -0.5 0 0 -1
0.5 0.138239 -0.455805 1 0 0
-0.207627 0.5 0.26409 0 1 0
0.150851 0.5 0.180809 0 1 0
-0.5 0.00872824 0.055029 -1 0 0
0.318252 -0.5 0.279605 0 -1 0
-0.0809923 0.195248 -0.5 0 0 -1
-0.452346 -0.40663 -0.5 0 0 -1
0.00083732 0.5 0.104454 0 1 0
0.5 -0.0554056 -0.21064 1 0 0
0.283506 -0.224802 -0.5 0 0 -1
-0.36739 -0.5 -0.206618 0 -1 0
0.5 -0.365094 0.426726 1 0 0
0.382023 0.5 0.453648 0 1 0
0.432036 -0.291037 0.5 0 0 1
0.5 0.458722 -0.0448707 1 0 0
0.287327 0.0672679 0.5 0 0 1
0.5 0.410751 -0.00644435 1 0 0
-0.382788 0.103699 0.5 0 0 1
0.320411 -0.293646 0.5 0 0 1
-0.433085 -0.389989 0.5 0 0 1
-0.314325 0.5 -0.244601 0 1 0
0.331733 0.00724949 -0.5 0 0 -1
0.5 0.0658459 0.229394 1 0 0
-0.262317 0.5 -0.357671 0 1 0
0.114819 0.166465 -0.5 0 0 -1
0.399781 0.283575 0.5 0 0 1
0.0666202 0.5 -0.459587 0 1 0
0.240219 -0.5 -0.066555 0 -1 0
0.139218 -0.5 0.421391 0 -1 0
0.5 -0.443443 -0.358822 1 0 0
-0.5 0.332857 0.421187 -1 0 0
-0.5 0.1111 -0.0331756 -1 0 0
0.204094 -0.228203 -0.5 0 0 -1
0.332077 -0.5 0.0569425 0 -1 0
-0.5 -0.403861 0.195482 -1 0 0
-0.10754 0.5 0.342054 0 1 0
-0.41291 -0.282863 -0.5 0 0 -1
-0.426602 0.5 -0.0932201 0 1 0
-0.170529 -0.5 -0.378984 0 -1 0
-0.345466 -0.34052 -0.5 0 0 -1
0.457563 0.257287 -0.5 0 0 -1
0.5 0.00407518 0.27217 1 0 0
0.0994726 0.0860642 0.5 0 0 1
-0.0550463 0.311558 0.5 0 0 1
0.276357 -0.5 0.0889993 0 -1 0
-0.0874985 0.5 -0.496276 0 1 0
0.202452 0.154472 0.5 0 0 1
0.388685 -0.5 -0.428159 0 -1 0
0.5 -0.080843 -0.309812 1 0 0
-0.495834 0.5 0.430211 0 1 0
-0.135858 -0.424447 0.5 0 0 1
0.203647 0.228862 -0.5 0 0 -1
-0.136665 0.0101679 0.5 0 0 1
-0.090575 0.43288 0.5 0 0 1
-0.43388 0.402286 0.5 0 0 1
0.155228 0.30638 0.5 0 0 1
-0.0852984 -0.385802 -0.5 0 0 -1
0.43349 0.321545 -0.5 0 0 -1
0.265259 -0.112242 0.5 0 0 1
0.427362 -0.366669 0.5 0 0 1
-0.198943 -0.314555 0.5 0 0 1
0.5 -0.252875 -0.0129891 1 0 0
-0.5 0.207721 -0.168142 -1 0 0
-0.327134 0.5 -0.455718 0 1 0
0.471559 -0.17656 -0.5 0 0 -1
0.5 -0.287651 -0.100082 1 0 0
0.079097 -0.0729832 -0.5 0 0 -1
0.287365 -0.5 -0.119063 0 -1 0
-0.5 -0.215125 -0.215864 -1 0 0
0.0106441 0.5 0.449828 0 1 0
-0.431881 0.5 -0.173769 0 1 0
0.5 0.464233 -0.143883 1 0 0
0.5 0.222394 0.146454 1 0 0
-0.465502 0.0837876 -0.5 0 0 -1
-0.499712 -0.0974928 0.5 0 0 1
-0.0714725 -0.447852 0.5 0 0 1
0.0607041 -0.459046 0.5 0 0 1
-0.400806 0.5 0.122821 0 1 0
0.202904 -0.0112264 0.5 0 0 1
-0.5 0.389081 0.113621 -1 0 0
0.362848 0.134468 -0.5 0 0 -1
0.195376 0.5 -0.11724 0 1 0
0.477474 0.096957 -0.5 0 0 -1
0.174298 -0.373117 0.5 0 0 1
-0.360788 -0.028279 -0.5 0 0 -1
-0.16828 0.5 0.1193 0 1 0
-0.467743 -0.5 0.0955578 0 -1 0
-0.193012 -0.5 -0.498491 0 -1 0
-0.280708 -0.5 -0.0610233 0 -1 0
-0.110804 0.5 0.450137 0 1 0
-0.5 0.101555 0.465458 -1 0 0
-0.0403405 0.4523 -0.5 0 0 -1
0.5 0.390988 -0.254843 1 0 0
-0.5 0.355617 0.2492 -1 0 0
-0.5 -0.106686 0.203952 -1 0 0
-0.5 -0.0967629 -0.224567 -1 0 0
0.5 -0.345677 0.289061 1 0 0
0.0348167 -0.00779798 -0.5 0 0 -1
-0.312247 -0.402135 -0.5 0 0 -1
0.5 -0.288847 0.134917 1 0 0
0.5 -0.169475 -0.0603682 1 0 0
-0.492615 -0.237197 -0.5 0 0 -1
-0.5 0.0269734 0.226444 -1 0 0
-0.0948931 -0.5 -0.149398 0 -1 0
-0.223314 0.5 0.0455625 0 1 0
-0.486292 0.5 -0.414723 0 1 0
-0.414004 0.5 -0.263161 0 1 0
-0.070744 -0.261352 -0.5 0 0 -1
0.222672 0.5 0.441377 0 1 0
-0.5 0.319477 -0.472737 -1 0 0
0.485465 -0.5 -0.336847 0 -1 0
0.420654 0.498313 0.5 0 0 1
0.424735 -0.0530019 0.5 0 0 1
0.5 0.108481 0.342301 1 0 0
-0.5 -0.313985 0.153244 -1 0 0
0.18261 0.5 0.348133 0 1 0
0.456762 0.252711 0.5 0 0 1
0.289483 -0.5 0.348406 0 -1 0
-0.203303 -0.5 0.190062 0 -1 0
0.0335816 -0.0776918 0.5 0 0 1
0.0560222 0.126005 -0.5 0 0 -1
0.009426 -0.5 -0.349604 0 -1 0
0.258539 -0.5 0.153538 0 -1 0
0.229803 0.5 -0.183703 0 1 0
-0.226581 -0.5 -0.254995 0 -1 0
-0.477522 0.205112 -0.5 0 0 -1
0.41999 0.5 -0.215969 0 1 0
-0.19975 0.371448 -0.5 0 0 -1
0.324616 0.5 0.140961 0 1 0
-0.187173 -0.5 -0.300512 0 -1 0
0.5 -0.363569 -0.322431 1 0 0
-0.5 0.477251 0.0449118 -1 0 0
-0.5 0.106893 0.136671 -1 0 0
-0.203242 -0.235172 0.5 0 0 1
-0.5 0.3017 -0.114606 -1 0 0
-0.390386 0.5 0.312029 0 1 0
-0.056291 0.140416 -0.5 0 0 -1
0.0955266 0.5 0.285766 0 1 0
-0.5 0.191528 0.4269 -1 0 0
0.199215 0.5 0.215183 0 1 0
-0.5 -0.10061 -0.140749 -1 0 0
-0.0168533 0.480441 0.5 0 0 1
0.490016 -0.310359 -0.5 0 0 -1
-0.272998 -0.0326238 0.5 0 0 1
0.14069 -0.21921 0.5 0 0 1
0.5 0.388574 -0.494819 1 0 0
0.243051 0.5 -0.327018 0 1 0
-0.284185 0.301768 -0.5 0 0 -1
0.480672 -0.0835951 -0.5 0 0 -1
-0.407164 0.26142 0.5 0 0 1
-0.0563037 0.5 -0.0481505 0 1 0
0.156106 0.5 -0.407911 0 1 0
0.225114 -0.00519599 -0.5 0 0 -1
0.00496739 -0.00700621 0.5 0 0 1
-0.5 0.0319713 0.000546578 -1 0 0
-0.487445 0.5 -0.189977 0 1 0
-0.5 0.37262 -0.00562821 -1 0 0
-0.259372 -0.0864242 -0.5 0 0 -1
-0.267013 0.5 0.470576 0 1 0
-0.0416193 -0.5 0.0185142 0 -1 0
-0.184141 0.5 -0.260896 0 1 0
0.0101501 0.3341 0.5 0 0 1
-0.5 0.185195 -0.35763 -1 0 0
0.5 0.196374 0.0715457 1 0 0
-0.5 0.00514917 -0.0956395 -1 0 0
0.223934 0.452042 -0.5 0 0 -1
-0.390579 -0.162048 -0.5 0 0 -1
-0.320218 -0.5 0.48853 0 -1 0
0.5 -0.376654 -0.261076 1 0 0
0.5 -0.357085 -0.105925 1 0 0
0.405313 0.0723029 0.5 0 0 1
0.211094 0.5 -0.00339722 0 1 0
-0.5 0.472578 0.298309 -1 0 0
-0.437811 0.459159 0.5 0 0 1
0.5 0.140179 0.446339 1 0 0
-0.203412 0.466265 -0.5 0 0 -1
0.152037 -0.0853145 0.5 0 0 1
0.255942 0.5 -0.133174 0 1 0
-0.0463751 -0.5 -0.0994216 0 -1 0
0.279783 0.251341 0.5 0 0 1
-0.233053 -0.5 -0.39919 0 -1 0
-0.00503033 0.5 0.370539 0 1 0
0.0900307 -0.295026 -0.5 0 0 -1
-0.402055 -0.5 0.375694 0 -1 0
-0.371745 -0.443195 0.5 0 0 1
0.5 0.131562 -0.358251 1 0 0
-0.449842 -0.262724 0.5 0 0 1
0.361123 0.5 -0.180994 0 1 0
-0.24811 0.5 -0.139112 0 1 0
-0.171118 0.5 -0.424601 0 1 0
0.5 0.370176 -0.163317 1 0 0
-0.5 0.0529039 0.493815 -1 0 0
0.5 -0.0181527 0.494248 1 0 0
0.295199 -0.5 0.444362 0 -1 0
-0.0697016 -0.5 0.292117 0 -1 0
-0.5 -0.202768 -0.407896 -1 0 0
-0.141652 0.252135 0.5 0 0 1
0.0186161 -0.5 -0.419251 0 -1 0
0.270612 0.215461 -0.5 0 0 -1
0.408039 -0.5 0.112973 0 -1 0
0.5 -0.367392 0.156402 1 0 0
0.5 0.472236 0.15315 1 0 0
0.145726 0.140611 0.5 0 0 1
-0.5 -0.0570285 -0.0479309 -1 0 0
0.5 -0.273036 0.371984 1 0 0
-0.5 0.387987 0.179919 -1 0 0
-0.5 0.115491 -0.147583 -1 0 0
0.351753 -0.5 -0.051793 0 -1 0
-0.421437 -0.5 -0.332381 0 -1 0
0.5 0.351191 -0.215504 1 0 0
-0.351037 -0.5 -0.0919623 0 -1 0
0.366951 -0.5 0.180181 0 -1 0
0.0967498 0.5 0.385603 0 1 0
-0.302204 -0.5 -0.473131 0 -1 0
0.5 -0.459348 0.23799 1 0 0
0.5 -0.09231 -0.0865209 1 0 0
0.5 0.161931 0.328461 1 0 0
-0.0924997 0.318927 -0.5 0 0 -1
0.5 0.0342548 -0.176471 1 0 0
0.40514 -0.380164 -0.5 0 0 -1
-0.169976 0.5 -0.325553 0 1 0
-0.5 0.00680087 -0.35613 -1 0 0
0.455662 0.5 -0.337604 0 1 0
-0.214905 -0.125776 -0.5 0 0 -1
0.333876 0.5 -0.37573 0 1 0
0.0574428 -0.5 0.426323 0 -1 0
0.5 0.248471 -0.384465 1 0 0
-0.0840846 -0.331127 0.5 0 0 1
-0.5 0.0101848 0.109661 -1 0 0
-0.5 -0.212473 -0.0965557 -1 0 0
-0.479259 -0.359111 -0.5 0 0 -1
-0.5 0.136404 -0.227734 -1 0 0
-0.375601 0.5 0.222197 0 1 0
-0.5 -0.497635 -0.343069 -1 0 0
0.19596 0.270114 0.5 0 0 1
-0.242401 0.435238 0.5 0 0 1
0.5 -0.397602 -0.149621 1 0 0
0.5 -0.0261499 -0.42854 1 0 0
-0.0732644 -0.5 -0.321828 0 -1 0
-0.198806 -0.5 -0.193893 0 -1 0
0.312848 0.113845 -0.5 0 0 -1
-0.245368 -0.5 -0.0132715 0 -1 0
-0.0709474 -0.5 -0.405171 0 -1 0
-0.332604 -0.45626 -0.5 0 0 -1
-0.5 -0.041681 -0.226572 -1 0 0
-0.334648 0.127935 0.5 0 0 1
0.287094 0.5 0.380423 0 1 0
-0.5 -0.34933 0.0434335 -1 0 0
0.383043 0.5 0.30007 0 1 0
0.262928 -0.5 -0.422331 0 -1 0
-0.5 0.436257 0.440347 -1 0 0
0.5 -0.223091 0.424619 1 0 0
0.0611478 0.417025 0.5 0 0 1
0.335598 0.491616 0.5 0 0 1
-0.369996 0.373982 -0.5 0 0 -1
-0.219769 -0.0281002 0.5 0 0 1
0.5 0.248118 0.312588 1 0 0
-0.5 0.312141 -0.339535 -1 0 0
-0.389443 0.5 -0.378765 0 1 0
0.313363 0.5 -0.447122 0 1 0
-0.127525 -0.5 0.0966627 0 -1 0
-0.471392 0.267066 0.5 0 0 1
-0.18906 0.252898 -0.5 0 0 -1
-0.253305 -0.5 0.479342 0 -1 0
0.257619 -0.178663 -0.5 0 0 -1
0.5 -0.232888 0.035979 1 0 0
0.5 -0.0736557 0.180765 1 0 0
-0.181403 -0.232366 -0.5 0 0 -1
-0.5 -0.0446697 0.498196 -1 0 0
-0.0487518 -0.155844 -0.5 0 0 -1
0.5 0.331563 0.0874142 1 0 0
-0.45191 -0.5 -0.434789 0 -1 0
0.179404 -0.428126 0.5 0 0 1
0.0462214 0.5 0.0281539 0 1 0
-0.152962 0.5 0.415671 0 1 0
-0.261261 -0.125689 0.5 0 0 1
-0.337221 -0.5 0.437439 0 -1 0
0.135888 -0.5 -0.187901 0 -1 0
0.293594 -0.5 -0.0583271 0 -1 0
-0.5 -0.269787 0.422872 -1 0 0
-0.00816918 0.5 -0.394628 0 1 0
-0.321743 -0.5 0.0390925 0 -1 0
0.454311 0.18372 0.5 0 0 1
-0.5 -0.306241 0.466089 -1 0 0
-0.5 0.319491 -0.21528 -1 0 0
0.5 -0.48716 -0.0596325 1 0 0
0.0614928 -0.5 0.351636 0 -1 0
0.187298 -0.375009 -0.5 0 0 -1
-0.339105 -0.313152 0.5 0 0 1
-0.457062 -0.5 0.273237 0 -1 0
-0.5 -0.25389 0.193292 -1 0 0
0.5 -0.156622 -0.393176 1 0 0
0.0693784 -0.437168 -0.5 0 0 -1
0.358298 0.306339 -0.5 0 0 -1
0.235455 -0.5 0.318861 0 -1 0
0.5 -0.406034 0.0494997 1 0 0
-0.5 -0.45039 -0.124879 -1 0 0
0.5 0.0574485 0.15509 1 0 0
-0.0305916 -0.34417 0.5 0 0 1
0.195241 -0.5 0.280877 0 -1 0
-0.0321267 -0.5 0.479583 0 -1 0
0.14534 -0.5 0.370106 0 -1 0
-0.147508 0.34903 -0.5 0 0 -1
-0.0834809 -0.0423268 -0.5 0 0 -1
0.0215338 -0.5 0.165347 0 -1 0
-0.249761 0.5 -0.00588138 0 1 0
-0.458781 0.5 -0.0513242 0 1 0
-0.5 -0.311364 -0.439481 -1 0 0
0.269695 0.146458 -0.5 0 0 -1
0.169918 0.5 -0.234701 0 1 0
-0.5 0.273553 0.318077 -1 0 0
-0.430759 -0.0182337 0.5 0 0 1
-0.5 0.137411 0.0107117 -1 0 0
-0.223911 0.5 0.498155 0 1 0
0.283052 0.326253 -0.5 0 0 -1
0.5 -0.0414557 0.242687 1 0 0
0.5 0.43708 -0.276804 1 0 0
0.5 -0.235851 -0.163115 1 0 0
-0.00796226 0.5 -0.270412 0 1 0
0.28053 -0.5 -0.348127 0 -1 0
0.388175 -0.5 -0.349126 0 -1 0
-0.5 -0.138407 0.380351 -1 0 0
0.5 0.059527 0.376149 1 0 0
-0.307803 -0.26784 -0.5 0 0 -1
0.366565 -0.339035 -0.5 0 0 -1
0.118535 0.5 -0.12905 0 1 0
-0.454139 -0.125541 0.5 0 0 1
-0.289479 -0.177473 0.5 0 0 1
0.493874 0.314059 -0.5 0 0 -1
-0.272677 -0.380552 0.5 0 0 1
-0.5 -0.121389 0.155384 -1 0 0
-0.5 0.276939 0.0874531 -1 0 0
0.247193 -0.5 -0.204195 0 -1 0
-0.5 0.288095 -0.422415 -1 0 0
-0.459629 -0.5 0.472057 0 -1 0
-0.365923 -0.358433 0.5 0 0 1
0.5 -0.258898 -0.249068 1 0 0
0.418425 0.5 0.0828313 0 1 0
-0.0767662 0.0634597 0.5 0 0 1
0.398224 -0.5 0.364913 0 -1 0
0.391833 0.0445734 -0.5 0 0 -1
0.360202 -0.5 0.411834 0 -1 0
-0.378033 -0.5 -0.0364853 0 -1 0
0.0889375 -0.5 -0.00690157 0 -1 0
0.489677 0.437174 -0.5 0 0 -1
0.5 0.260365 -0.27472 1 0 0
0.5 0.131431 -0.107363 1 0 0
0.353462 0.5 0.0400257 0 1 0
-0.5 0.251852 0.212528 -1 0 0
0.5 0.162379 -0.00681243 1 0 0
0.3811 -0.1772 0.5 0 0 1
0.407364 -0.178621 -0.5 0 0 -1
-0.138955 0.5 -0.286668 0 1 0
-0.217681 -0.5 -0.12143 0 -1 0
-0.169959 -0.271945 0.5 0 0 1
-0.0668322 0.5 0.0107872 0 1 0
0.5 -0.107379 0.347192 1 0 0
-0.489761 -0.5 -0.0650267 0 -1 0
0.5 0.211108 0.432836 1 0 0
-0.5 -0.487526 0.157073 -1 0 0
-0.482149 -0.5 -0.163265 0 -1 0
-0.222123 0.374226 0.5 0 0 1
0.289171 0.5 0.242496 0 1 0
-0.5 0.264731 0.406812 -1 0 0
